# .PCD v0.7 - Point Cloud Data file format
VERSION 0.7
FIELDS x y z
SIZE 4 4 4
TYPE F F F
COUNT 1 1 1
WIDTH 1559
HEIGHT 1
VIEWPOINT 0 0 0 1 0 0 0
POINTS 1559
DATA ascii
183.09906 -16.693035 0.10181166
183.0276 -41.576286 1.8063765
171.71092 -19.123888 1.4237088
172.08217 -19.091175 1.5018744
172.54469 -19.049515 1.6001842
173.66811 -19.456751 1.375192
173.86887 -19.440321 1.5064049
174.21922 -19.373163 1.3616482
174.70714 -19.330385 1.4347192
175.31772 -19.243473 1.341475
175.90515 -19.270016 1.1634318
175.92094 -19.16877 1.3792903
176.49117 -19.102898 1.2634106
176.76035 -19.331249 1.3028394
177.23747 -19.654654 1.0781903
177.21082 -19.025455 1.3498561
177.5121 -19.138077 1.1954606
178.21443 -19.551041 1.08636
178.17792 -18.923605 1.322807
178.67171 -19.159225 1.1708663
179.16325 -18.916393 1.0032096
170.21492 -11.033216 1.6078134
183.71114 -16.628428 0.33690324
184.37486 -16.55336 0.38765502
184.98247 -16.489231 0.56317633
175.7467 -22.657305 1.7371438
174.91177 -21.514343 1.8264052
174.11987 -20.23596 1.8616366
173.50922 -19.422064 1.9247712
174.4221 -19.75139 1.8297265
173.82681 -19.198204 1.9306635
174.27306 -19.093576 1.9334234
174.79234 -19.537678 1.8033123
175.48257 -19.826433 1.8657063
175.98117 -19.899529 1.8633295
176.71867 -20.166714 1.8883462
174.84392 -19.094193 1.936255
175.30331 -19.151598 1.9335762
175.83676 -19.253157 1.927476
176.13522 -19.245413 1.6333797
176.47165 -19.206247 1.744477
177.60803 -19.035187 1.5328054
170.27219 -10.982204 1.7862289
184.90269 -16.488216 0.7722286
178.12126 -20.002531 1.9062275
187.70003 -17.827845 1.0355662
189.20421 -18.01038 1.3050804
189.17955 -17.654539 1.2346848
189.20866 -18.047468 1.5698262
189.17485 -17.590031 1.6427207
188.80302 -17.604055 1.9681966
189.12851 -17.391014 1.9420348
195.06798 -56.329113 0.38796076
171.36388 -19.112982 0.15247396
171.73738 -19.076691 0.22083913
171.9886 -19.052166 0.38331157
172.26704 -19.017698 0.2882314
172.63795 -18.966726 0.18609515
173.37624 -19.528591 0.2635155
173.64313 -19.424278 0.24767192
174.74474 -19.896374 0.25802499
175.03087 -19.863222 0.14826322
173.47685 -18.012018 0.32338652
173.50917 -18.257166 0.12770088
173.51357 -17.816662 0.068485677
173.81018 -17.735683 0.066108286
174.08163 -17.716476 0.11868555
172.7325 -18.980103 0.54318672
173.64886 -19.414165 0.60193259
174.63855 -19.924891 0.67296302
174.98296 -19.886841 0.68024081
173.51236 -18.278965 0.45398608
173.54701 -17.842875 0.46022007
173.93839 -17.740353 0.4090755
174.40999 -17.684412 0.33899319
174.8978 -17.621098 0.24550068
175.25418 -17.589169 0.16905503
169.40164 -11.628217 0.0076066665
187.32565 -16.24102 0.11452315
187.92119 -16.169453 0.054234717
191.41005 -16.466013 0.05714101
169.45505 -11.686789 0.20807883
169.44182 -11.524628 0.10202508
191.4026 -16.424015 0.63432515
191.34509 -16.006456 0.40545654
176.11891 -8.4135733 0.08652956
176.43008 -8.2905903 0.27486375
191.3567 -16.075521 1.0483956
191.72853 -15.7977 0.88386232
192.79997 -15.674769 0.80233103
191.8331 -15.880537 1.5547645
190.97842 -15.202731 1.7338645
192.71042 -15.74841 1.4892619
193.76111 -15.606042 1.4203093
195.00804 -15.450014 1.34164
182.62143 -12.296768 1.9891132
198.0556 -15.202749 1.9909341
173.44742 -17.976345 0.4679336
173.51967 -17.798689 0.30060041
173.88664 -17.753002 0.26266041
174.37747 -17.693792 0.15903936
174.95052 -17.625797 0.065551393
182.46191 -17.384769 0.060035128
173.45764 -18.020691 0.67179728
173.48685 -17.831095 0.56425631
182.43961 -17.246607 0.44117346
182.38963 -16.973854 0.6850909
175.19348 -19.261753 1.3844414
175.5341 -19.221182 1.3924149
175.76045 -19.187126 1.3274564
182.38922 -17.061543 0.72700936
187.27263 -17.919901 1.2044381
182.97075 -10.055651 0.23215339
183.09485 -9.6912928 0.058463834
175.84952 -19.811855 1.9163483
173.62865 -18.800146 1.9758335
174.06853 -18.982635 1.9652536
174.58556 -19.208427 1.953323
175.01746 -19.365118 1.8946143
175.61089 -19.447132 1.7798842
172.77805 -18.343796 1.9954695
173.17332 -18.549662 1.9872628
173.55368 -18.687954 1.9799547
186.95763 -17.964378 1.2210214
182.89589 -10.117901 0.42856887
183.21504 -9.4467335 0.49521297
184.2018 -17.018162 1.9811727
184.58237 -16.955925 1.9789764
185.069 -16.892986 1.9821026
186.68175 -17.498487 1.9448385
187.43086 -17.415575 1.9438847
188.3869 -17.895437 1.7250174
189.19026 -17.923134 1.765709
185.58897 -16.820755 1.9793141
188.02475 -17.351034 1.9441972
180.99101 -9.5890751 1.3487867
223.95102 -4.0270905 0.21887399
223.83467 -2.9409564 0.70827723
223.69737 -1.6842934 0.51042402
223.5856 -0.49233851 0.39411438
223.41252 0.60172457 0.34613681
224.12662 -1.7920285 1.2602946
223.87517 -0.60619253 1.118785
223.57472 0.47686195 1.049921
223.41714 1.5072174 1.0593959
256.26782 4.0222821 0.31169835
224.01265 -0.75925988 1.8466084
223.81979 0.37523738 1.7631328
223.78305 1.4677045 1.7655009
176.08855 -19.73012 0.24831466
173.51952 -18.424494 0.11212147
175.60907 -19.796953 0.67284775
175.9821 -19.753527 0.58678252
174.28838 -19.379805 1.2276667
174.58369 -19.508379 1.2190027
175.1172 -19.770123 1.199537
175.46841 -19.827148 1.004406
175.80225 -19.783916 0.90011257
174.20644 -19.330173 1.280303
183.22702 -16.684233 0.54079026
183.6786 -16.626957 0.33152688
184.24539 -16.569534 0.44549844
184.62379 -16.52791 0.46502951
174.21213 -19.351233 1.5255225
174.39459 -19.447723 1.6505113
174.19244 -19.336628 1.4068165
183.4873 -16.651098 0.72161949
175.05153 -19.864103 1.9599103
174.29025 -19.422096 1.9694214
174.52879 -19.461704 1.9448798
175.01375 -19.748465 1.9682808
174.07919 -19.061466 1.9938895
174.39615 -19.185776 1.986619
189.11678 -17.156219 1.4339327
182.73424 -10.809661 1.0541114
181.20122 -10.515134 1.3193442
182.50194 -10.500253 1.0851403
187.00952 -17.240198 1.996249
188.31134 -17.016186 1.9943868
189.12955 -17.274887 1.8650953
189.57468 -17.111422 1.7066023
190.55252 -17.002388 1.5802978
192.27943 -16.95318 1.4902133
181.026 -10.514504 1.4912766
181.37378 -10.452859 1.7405902
182.05592 -10.369678 1.5207527
182.58603 -10.384789 1.4316338
182.71907 -10.096888 1.2783267
210.28809 -7.9142466 0.076044172
189.83231 -17.052723 1.9658774
191.46545 -16.984127 1.9134506
181.74179 -10.026874 1.9144807
181.94478 -10.066989 1.8546107
223.97131 -4.0571504 0.11981602
223.97507 -4.2998729 0.83209234
223.85895 -3.0099599 0.69629872
223.70543 -1.7677315 0.63326979
223.56206 -0.58065188 0.63844305
224.27742 -3.151165 1.4110508
224.12997 -1.8916284 1.3292851
223.99861 -0.67208272 1.3202889
223.87253 0.47625503 1.3769724
256.34363 4.7423282 0.38289502
173.47551 -18.331326 0.043481588
173.45207 -18.116932 0.46659619
173.4863 -17.794724 0.55634737
173.85194 -17.742319 0.63273662
174.25879 -17.69919 0.655752
173.59261 -17.787987 0.76145065
174.08835 -17.719461 0.71604896
174.52652 -17.674372 0.70575166
174.81355 -17.644413 0.75072181
182.8483 -16.734064 0.73391771
184.10982 -16.59235 0.61842418
185.47919 -16.431774 0.46154997
187.04756 -16.25 0.26029563
191.3526 -16.006897 0.08589597
186.31288 -16.348202 0.7151829
187.99623 -16.151199 0.51882952
191.34547 -15.90071 0.32891062
191.45319 -15.792547 0.57527512
178.57045 -18.888165 1.9979093
180.18245 -18.332163 1.9327716
181.00043 -17.944069 1.9767594
191.36139 -16.010981 0.9785257
193.00409 -15.643929 0.9217397
196.05461 -15.379778 0.4720436
200.24818 -14.912239 0.22054185
189.1223 -17.179419 1.6948231
191.4079 -16.547852 1.6397365
191.36749 -16.091261 1.4116737
189.52728 -17.08264 1.9970263
191.56839 -16.877243 1.9002823
174.57932 -17.635429 0.050211079
175.03729 -17.592516 0.1285647
175.51564 -17.540562 0.12396306
175.96956 -17.495462 0.14131102
175.26257 -17.570009 0.27451161
175.70467 -17.528343 0.28786373
176.15039 -17.481161 0.32239348
176.61771 -17.432108 0.32648751
177.08279 -17.380816 0.36868215
177.55817 -17.327568 0.33455181
178.08771 -17.267477 0.35067719
178.58536 -17.21067 0.35942641
178.9157 -17.172304 0.36400697
182.36823 -16.786604 0.1189807
183.71162 -16.626917 0.042734221
182.41638 -17.221708 0.64936
182.40289 -17.124786 0.48306173
191.34682 -16.001938 0.12563066
177.56821 -17.335226 0.57664669
178.12599 -17.27561 0.61567223
178.7589 -17.205063 0.65022838
179.17953 -17.147095 0.5142045
182.36554 -16.8344 0.56284124
182.38481 -16.936172 0.34139094
182.88562 -16.731482 0.30776897
183.47968 -16.671988 0.51782042
184.40617 -16.557333 0.24893433
185.15401 -16.481119 0.47753426
186.33548 -16.340202 0.1609319
196.14426 -15.408531 0.21810357
182.60326 -16.775373 0.74237937
184.08421 -16.606798 0.74279577
185.98442 -16.396284 0.73266584
187.27576 -16.240259 0.41015264
191.32324 -15.889751 0.36742333
191.35619 -16.067013 0.92893219
201.90794 -14.595161 0.26632515
191.90993 -15.760078 0.64736545
196.21446 -15.271658 0.51435715
189.1358 -17.658741 1.7535816
189.10114 -17.241451 1.774187
210.20091 -7.9884901 0.17145823
214.50476 -9.6904392 0.33539027
210.34225 -8.4347591 0.57815826
211.09294 -8.7539577 0.99635333
210.53415 -7.6246266 0.88881654
199.65588 2.6901999 0.056048002
210.69328 -8.0744963 1.3063263
223.84982 -3.1743097 0.24359666
223.74568 -2.1126754 0.54535824
207.71065 5.3314362 0.2918466
223.99596 -3.8138251 0.85547709
223.63072 -1.0355175 0.8087216
207.86122 4.5804396 0.58688724
224.18945 -2.6778984 1.2059033
224.08191 -1.5985551 1.5060027
223.60002 0.086522684 1.0314988
223.63071 1.251852 1.2156283
207.67513 4.8576117 1.172884
216.99203 6.3337259 0.91176742
216.53368 7.1691031 0.70233262
207.15358 6.5490561 1.0832831
223.94301 -0.51377064 1.7633903
223.6223 2.4165771 1.352901
223.52341 3.5683365 1.440281
207.73175 5.2942586 1.7737595
223.40382 4.7148576 1.4806385
223.2925 5.883122 1.4692451
217.31506 6.9671583 1.7029891
248.04332 -2.8246074 1.8874046
255.58528 -0.43341124 1.3507694
230.60921 16.211946 0.8145839
230.54398 16.789101 1.8017578
232.92599 25.170195 1.7066616
178.77203 -17.177259 0.52752972
178.9024 -17.154427 0.27156311
187.07683 -18.207857 0.32156661
187.05415 -18.076572 0.30885604
178.75812 -17.18454 0.66543782
178.80975 -17.177176 0.65461892
187.08197 -18.322132 0.78139746
186.2496 -18.343994 1.2815181
187.08916 -18.418379 1.165121
207.07658 6.1553373 0.55559605
207.2155 6.5255051 0.47044063
207.32597 6.7127466 0.35710165
207.45233 5.6308813 1.1233457
207.1165 5.9403839 1.0917914
207.29736 6.5738664 0.99538571
207.66769 5.3467321 1.6099843
207.41312 5.8178091 1.6268756
207.42587 6.3364873 1.6039213
223.24696 -10.25038 1.944932
233.04068 -9.9630337 1.6541089
257.61334 -8.5637045 1.4344556
257.68781 -7.6882701 0.95286304
257.45404 -9.4146748 1.8838437
258.07663 -5.3953347 1.5626758
186.70528 -18.582392 0.74049753
187.09364 -18.456099 0.55371761
184.1537 -18.420195 1.2997025
184.77586 -18.47662 1.3020294
185.5107 -18.587355 1.2938541
185.96361 -18.684679 1.1867723
186.2821 -18.626097 1.1111205
186.84874 -18.581778 1.0328043
187.10077 -18.468855 0.96045947
183.79543 -18.302752 1.313193
196.66414 -15.192545 0.2058033
200.2215 -14.854317 0.24751335
183.81197 -18.432945 1.7768004
183.47481 -18.318878 1.5050601
183.73883 -18.289806 1.4580067
200.2403 -14.834579 0.71581519
201.39987 -14.651254 0.67301881
184.16275 -18.557722 1.9919702
190.96048 -15.032282 1.7500169
190.95523 -15.073624 1.9138716
216.82513 6.4074173 0.32846832
216.49443 7.1062584 0.35258141
217.03714 7.3100452 0.91920495
230.57251 16.390278 0.83098769
230.4753 17.234928 0.99682719
230.58296 16.283651 1.5560433
230.49348 17.176338 1.7174546
192.15439 -15.683888 0.23043181
188.08234 -16.123825 0.44640502
200.24867 -14.867334 0.085578486
196.16362 -15.353773 0.38577914
191.36896 -16.002012 0.60320389
191.95021 -15.725231 0.61438978
191.33894 -15.881962 0.6414448
191.34344 -15.861167 0.38591942
186.86926 -16.268608 0.69315284
187.39001 -16.208521 0.61607665
187.95563 -16.145821 0.72281295
186.36263 -16.327284 0.74269474
203.73656 -14.357659 0.31702465
200.26511 -14.907506 0.50357652
194.16953 -15.481471 0.72758019
191.35323 -15.999486 1.0482173
193.44601 -15.541495 0.95973313
191.33699 -15.905768 0.89931405
191.5932 -15.774614 0.97485369
214.45262 -13.081986 0.2215417
202.78508 -14.473025 0.74504256
197.01268 -15.161188 1.0524681
191.41711 -16.451059 1.7878206
191.38141 -16.184048 1.5326352
214.0981 -13.18944 0.88884264
192.08099 -16.321548 1.9940037
233.06255 -10.926751 1.9990284
223.23708 2.6111374 0.45580533
223.39337 2.3036711 1.0117937
223.29651 2.6396656 0.9709866
257.63138 -8.4175253 1.7029784
258.00925 -5.9499373 1.1494304
223.66264 2.5766172 1.5128258
223.61946 2.9107912 1.4702045
207.10222 6.4787908 0.63342696
207.19185 6.1528034 1.2880447
207.38741 5.8833785 1.932344
229.59016 26.019428 1.2011983
229.39235 26.931248 1.2932506
229.48672 26.1931 1.888487
229.3858 27.069983 1.776445
212.84953 14.054893 0.79715121
212.73772 14.342665 0.85418355
212.67938 14.95156 0.97349584
203.82071 13.104857 0.4056102
213.08911 14.048214 1.6482184
203.78471 13.485709 1.0453191
203.70049 14.156438 0.65351224
212.73137 14.478768 1.7617199
203.66628 14.577835 1.307135
196.39311 12.256973 1.0732831
195.66731 12.169928 1.0088146
194.98155 12.097731 0.92017603
194.81715 13.311237 0.8753643
195.08809 22.158375 0.42703861
190.73335 18.202375 0.33352885
192.94084 20.546556 0.24277395
194.33772 22.089165 0.11232264
192.02541 20.435066 0.34606284
203.74683 13.888674 1.7007219
212.34848 28.667459 1.5745972
196.09474 12.218 1.5520918
195.38506 12.139276 1.4752169
194.90276 12.561724 1.4108773
194.74417 22.088863 0.96981132
192.63892 20.491661 0.73239529
194.00897 22.020702 0.64001918
191.74088 20.383242 0.81763655
197.19627 26.249067 0.86107486
195.08911 12.087253 1.9358568
212.19527 30.428972 1.8868723
194.85138 13.124302 1.9230222
203.3752 23.015852 1.8149437
202.68301 23.624413 1.8452373
199.07303 26.478415 1.3916914
192.33595 20.43914 1.2147888
193.73328 22.149948 1.1723166
198.12852 26.377476 1.1467575
195.1649 22.109453 1.8241072
192.97331 20.48321 1.5904219
194.40723 22.048399 1.5084232
210.55836 -7.5013623 0.34561113
210.53537 -7.4692903 0.83560318
212.59123 15.322147 0.57359546
204.53732 13.179394 0.50502354
212.67036 14.669954 1.2488331
212.62035 15.214946 1.3862516
218.73402 22.930878 1.0416437
217.91502 22.827621 1.198727
213.02562 22.741568 0.98449224
205.32324 13.253385 0.69878411
204.60735 13.164818 0.86731696
212.75331 14.068214 1.9354622
217.09279 22.725668 1.370569
205.40132 13.231251 1.0831856
204.6965 13.177195 1.2364082
203.99226 13.085959 1.2442614
204.77669 13.172477 1.6108922
204.0874 13.075674 1.7807938
203.75424 13.503294 1.6709166
199.48521 3.7236466 0.027190281
204.57016 13.157032 0.46636173
204.9883 13.184665 0.68143588
205.40994 13.22215 0.88520014
204.30031 13.102638 1.1071502
203.86313 13.050591 0.87181902
203.76471 13.566845 0.655303
204.72633 13.144296 1.3311207
203.793 13.321952 1.5256501
203.72586 13.908143 1.315827
203.65524 14.516672 1.0834253
187.48804 11.302423 0.23774973
187.02953 11.258164 0.10929453
187.21562 11.288089 0.18226705
204.02507 13.043526 1.7437522
203.69067 14.268976 1.9916488
187.10551 11.260953 0.48756596
187.29358 11.269969 0.70550662
188.15388 18.323956 0.52901924
187.93405 20.011768 0.13428356
187.46938 11.265302 1.0649
188.9799 20.064857 1.4532754
188.32654 20.008516 1.1750821
189.4292 20.120476 1.850912
188.74467 20.10091 1.9040568
188.14459 20.020277 1.9068747
242.58658 18.087088 1.5201399
223.29556 5.7520523 0.37479216
237.53122 24.318081 1.5803481
235.80548 24.583656 1.6453319
216.85939 6.3234944 0.35703409
216.50395 6.9588704 0.48375607
217.1366 5.9153395 0.79713762
216.75851 6.5245075 0.94695169
222.78758 15.183969 1.0714325
221.63068 15.422553 1.0486956
221.51335 16.58403 1.0448047
207.94876 4.8032799 0.30473667
207.78868 5.4469767 0.25278714
217.38432 6.3547797 1.418679
217.1774 7.1064196 1.5785853
216.78914 7.4556837 1.0924078
222.2224 15.088295 1.7630509
207.69232 4.8116655 0.70900822
207.69009 5.6153617 0.66825992
206.97467 5.6950803 0.55432051
212.73764 14.062788 0.68490964
206.72777 6.2629538 0.45209053
221.60306 15.799103 1.7589978
208.62701 5.1666284 1.2399701
207.62404 5.0021873 1.1274012
207.22198 5.4044681 1.0506657
213.47366 14.126224 1.4383337
207.12839 6.1363964 0.98120356
212.70448 14.417397 1.227669
212.59337 15.471857 1.0412765
217.33807 22.737366 1.1245487
260.38226 13.161318 0.73519486
270.88953 19.040216 1.2901261
223.72441 -1.9740945 0.24698688
223.63583 -1.2286034 0.44096142
223.55392 -0.47081092 0.60846549
223.44543 0.83294404 0.27384743
223.32899 1.6139481 0.36344868
223.24704 2.4210291 0.42789632
223.31384 5.8713861 0.2035346
252.78314 24.968874 1.2161212
223.46613 0.29902366 0.74948162
223.39474 1.090263 0.86419678
223.36177 1.9146714 0.95559233
223.15469 3.2420447 0.46435469
223.0639 4.0722933 0.47313341
223.37216 5.1410136 0.4667576
223.3038 5.922627 0.32671365
223.31836 2.7471273 1.0184057
223.24556 3.5884094 1.0530338
223.43961 4.5868292 1.0744015
223.34175 5.4475284 1.0512851
223.29257 6.0514617 1.0004082
242.60771 17.793173 1.9561971
217.63695 6.2800312 0.29624274
248.67458 24.787262 1.9235342
250.63974 27.874249 1.7476689
223.28319 6.1160192 1.8437923
207.14435 5.1355319 0.28776789
206.91011 5.598361 0.30519977
207.38988 6.0437479 0.61616349
206.79758 6.1840224 0.36050031
207.06004 6.3903584 0.65121108
207.06026 6.2778473 0.92714596
212.68723 14.438644 0.8713519
212.7092 14.320126 1.2472787
212.72694 14.198818 1.6225187
212.63899 15.044194 1.7736839
212.62032 15.144525 1.3975807
252.86983 25.914089 1.4923913
214.34718 -10.305009 0.2217766
257.84354 -6.929625 1.0317341
234.61665 -9.8709755 1.9026791
259.45465 -5.8759785 0.58490515
232.8831 -9.2008171 1.9993097
257.88828 -6.6586652 1.7503875
201.60117 -16.890629 0.30282003
201.85635 -16.867046 0.32743362
200.47873 -16.390594 0.18816251
201.7 -16.818222 0.17608605
202.07295 -16.83322 0.27072725
202.44051 -16.781294 0.20252268
202.88753 -16.727123 0.19078358
199.25372 -15.976686 0.12371943
199.49425 -15.964046 0.15963231
200.29211 -15.275095 0.092559762
200.25774 -15.006051 0.042610947
201.70454 -16.892757 0.51938105
201.96013 -16.863613 0.54526174
202.23019 -16.830729 0.56345576
202.58899 -16.790445 0.47115606
202.99643 -16.74144 0.49643663
214.11252 -13.18327 0.1610301
225.47684 -12.675719 1.8524886
227.10536 -12.285263 1.9321688
234.29944 -12.891023 1.0548273
234.20761 -12.45736 1.3739393
233.4776 -13.010153 1.8016949
233.87448 -12.502737 1.7448426
234.27512 -12.950385 1.449695
264.74344 -12.739206 1.6308959
256.62561 -11.375748 0.17379962
210.3679 -8.2539234 1.2747589
257.34311 -10.048497 0.85724503
257.35205 -9.5292349 0.55987978
257.29315 -10.551968 1.1290584
232.97299 -10.302339 1.9621296
241.12299 -10.171215 1.949471
234.46774 -9.8048353 1.8535995
232.84724 -9.0619793 1.9546206
235.22241 -8.3541756 1.8520571
257.64047 -8.0556517 1.0743185
223.46152 2.9534781 1.1181279
223.25975 3.1700425 0.90670997
223.15886 3.6422176 0.99512488
257.51093 -9.1796722 1.7511387
257.56558 -8.6292477 1.422454
223.61002 2.7410479 1.4910032
223.5638 3.2352033 1.5083653
223.50536 3.7832291 1.4537866
257.80576 -7.0885062 1.8855902
202.85309 -14.420809 0.081955776
257.41626 -9.4069958 0.31351033
223.29279 1.7568923 0.26730868
234.34885 -10.29966 1.8799987
235.44325 -9.9567375 1.8431875
223.28897 1.892885 0.63057548
257.51685 -9.1309996 1.5132964
257.55856 -8.8130608 1.3691645
257.61243 -8.2894821 1.1076052
223.26141 2.13464 0.78975701
223.31955 1.9437325 0.94656456
223.53726 2.3989201 1.1263475
223.6559 2.3537436 1.3433853
223.63152 2.5729198 1.4844239
223.56436 2.5578921 1.7755783
203.89008 -14.306905 0.033459712
204.25673 -14.307062 0.35391331
204.56059 -14.2756 0.48179185
205.03868 -14.233348 0.67392689
205.44481 -14.191471 0.73562402
205.63286 -14.173297 0.83801609
210.36011 -8.6180878 0.25485957
210.17427 -8.4217062 0.49821478
210.40578 -8.306447 0.50873637
210.81412 -8.1374693 0.27167034
211.45894 -7.916296 0.19325216
210.05424 -8.3120575 0.90304065
210.41058 -8.1510887 0.77442724
210.6436 -7.9229641 0.91620201
223.60033 -0.94780952 0.3803623
223.64339 -1.4226949 0.5840264
223.59802 -0.98918289 0.65516835
223.55269 -0.60235429 0.74998462
233.21327 -10.182389 1.9001799
233.24934 -9.8882942 1.8912876
223.50626 -0.27449554 0.86114115
257.84387 -6.8748722 0.98349285
257.86325 -6.6233244 0.91469193
257.85892 -6.9009218 1.5703775
247.46553 10.450184 0.59712648
245.84761 10.492151 1.1805145
246.48593 11.847644 1.3099917
205.71342 -14.11516 0.058010735
209.16629 -13.907364 0.76889431
209.23036 -13.794662 0.69919139
209.67563 -13.736477 0.68261868
211.3765 -13.547132 0.8344624
209.95604 -13.70425 0.83038086
210.41666 -13.652138 0.7512846
233.07979 -11.225804 1.9762557
257.68051 -7.9110198 1.0450495
235.09007 -10.659851 1.8930103
241.25266 -10.219611 1.9887835
234.76143 -10.226829 1.9230007
257.81589 -7.1915283 1.0760837
257.76013 -7.7008724 1.6097956
257.86569 -7.0097075 1.6322615
209.43803 -15.325559 0.016493635
210.85037 -15.828667 0.32164413
211.28392 -15.803062 0.4041526
211.74506 -15.76025 0.37923393
212.16689 -15.711312 0.39471793
211.49062 -15.791636 0.63372076
211.93768 -15.746789 0.60642278
212.3739 -15.704701 0.64508265
212.85307 -15.652703 0.65532374
213.41277 -15.584841 0.58062613
213.45227 -15.595465 0.91915667
212.39417 -13.333176 0.12916458
212.59903 -13.33138 0.31704336
212.88417 -13.328303 0.60053957
213.14394 -13.303837 0.74826598
219.58919 -8.8247557 0.08099027
219.99324 -8.9109001 0.060170483
219.96498 -8.4138269 0.14571914
220.29868 -8.0003786 0.19858688
255.45967 -1.1432469 0.27583116
255.62019 -0.15723045 0.71154487
255.6956 0.43401715 0.1913611
255.77112 0.85854298 1.1203508
213.44563 -13.218215 0.31810078
213.82176 -13.197984 0.50267935
213.99162 -13.184834 0.71666986
214.2968 -13.153416 0.75847673
233.13135 -9.0448513 1.9521323
233.17131 -8.9553843 1.9500605
235.30409 -8.7061977 1.9500384
259.42969 -5.5954232 0.021705646
259.46832 -5.3669925 0.52084446
258.06009 -5.3967924 1.2001117
258.07953 -5.2949724 1.6846967
225.93277 -14.604099 0.22352591
226.38759 -14.530375 0.15086101
225.92757 -14.71028 0.62490612
226.13741 -14.517458 0.53638917
225.93674 -14.505655 0.78443313
235.37665 -15.465204 0.51412153
235.37947 -15.445229 0.070767105
225.92566 -14.77352 1.0991054
242.31529 -15.943003 0.37537211
242.37375 -14.832209 0.11117071
235.34923 -15.484898 0.95791179
225.91675 -14.873415 1.5181426
243.05934 -15.67094 0.49477896
243.28094 -15.325147 0.60813588
235.37236 -15.515469 1.4126714
244.19516 -15.823119 1.1511613
233.62387 -8.5108633 1.9562509
235.34721 -7.9889045 1.9446272
245.68036 -5.8521132 1.7371542
248.0524 -5.4997487 1.5412574
247.96545 -5.2752709 1.3362594
254.73592 -3.8686993 0.37361243
254.70042 -4.0800772 1.0698974
247.82965 -5.115932 1.8735267
254.75546 -3.7685239 1.0363309
254.76944 -3.6307051 1.4650502
234.21582 -12.255219 1.0602232
234.23816 -12.55514 1.1946503
234.19435 -12.441425 1.4288822
234.2551 -12.642567 1.801401
256.65384 -11.035995 0.10872564
248.7599 -12.165896 1.9275173
256.59015 -11.566577 0.4558624
256.69104 -10.827336 0.5673309
251.56786 -12.922254 1.9322393
257.04034 -11.908556 1.2709143
256.62326 -11.347101 0.92992413
261.32098 -12.091896 0.92682177
256.58719 -11.687859 1.7309105
256.6517 -11.129629 1.3999437
264.513 -12.517976 1.9450725
233.68715 -11.164834 1.9219838
236.08051 -11.123954 1.879909
236.22168 -11.014186 1.8408622
245.97485 -10.784503 1.9421834
257.32687 -10.216733 1.0895972
257.30887 -10.512659 1.2465388
257.31366 -10.410737 1.1940256
257.37521 -10.097107 1.983935
234.18599 -12.260612 1.4765146
233.66521 -12.222156 1.9107076
233.90732 -12.192789 1.9130169
257.04724 -11.891229 0.73866016
256.58374 -11.68483 0.73962682
260.50146 -11.95717 0.84421444
251.29834 -11.96669 1.9428049
251.48729 -12.063407 1.9395906
256.57504 -11.766341 1.5470107
257.13248 -11.932691 1.5577542
251.28232 -11.874898 1.9500701
255.4045 -1.3777924 0.28395027
264.38348 -11.921319 1.9452509
246.0351 -3.3405769 1.7289571
247.78947 -2.7553251 1.5444804
255.4153 -1.432582 0.90519828
255.51143 -0.74337637 0.6729725
255.40726 -1.4701132 1.3285429
255.50845 -0.76808685 1.0812222
255.60397 -0.16369541 1.2839017
255.51392 -0.80635154 1.7027713
255.60446 -0.17119047 1.6957341
255.69724 0.39542037 1.9262818
235.95155 -11.410452 1.9377497
234.02466 -11.504231 1.9434354
235.7711 -11.355278 1.9454415
235.82376 -11.386081 1.9413321
266.52435 -8.848875 0.10863124
257.42813 -9.5163193 0.73781008
257.39725 -9.7779646 1.4906607
257.4263 -9.4934044 1.5213627
257.4859 -9.273016 1.5501586
266.48068 -8.5485497 1.0999727
255.64983 0.14629449 0.13060719
255.71684 0.59178305 0.040770542
255.64958 0.14891391 0.5174498
255.75307 0.76355845 0.6513958
255.7785 0.86653674 1.1493139
255.71065 1.0709417 1.4926178
255.72795 1.3833057 1.4353304
255.69547 1.0991524 1.8768481
281.59995 -6.9079728 1.7137114
250.48219 -17.723986 0.21119791
244.77234 -16.877354 0.34299913
241.90173 -15.618679 0.025075141
242.42134 -15.294091 0.096812695
242.54538 -14.888948 0.13499075
242.89325 -15.641134 0.43079287
243.11632 -15.247422 0.49196079
242.95854 -14.78933 0.51141834
242.7093 -14.326838 0.5035665
242.70604 -13.753682 0.29803106
242.41551 -13.16984 0.04998941
242.47569 -13.014212 0.38108113
257.03418 -18.771864 1.0366796
256.6488 -11.856836 0.093732834
256.69836 -10.887575 0.39738309
264.7171 -12.696716 0.49023718
256.59955 -11.587597 0.61329246
262.2749 -12.346336 1.0436882
271.65344 -13.449146 1.6641736
255.78983 1.1481293 0.28442103
255.83083 1.3280901 0.83093202
255.75113 1.4743198 1.3712977
255.70227 1.6007897 1.7372928
255.71924 1.6537879 1.7599403
245.82101 10.727019 0.16952562
245.89555 11.112583 0.034577705
247.97128 12.487485 0.39176112
245.86742 11.002582 0.81184494
247.03258 12.483546 0.75064963
247.40405 13.217321 0.61224884
247.62532 13.83007 0.44432133
246.26398 11.965992 1.366593
246.0201 12.071626 1.1910063
245.06534 12.089081 1.4115239
246.34288 12.778009 1.0485179
246.89523 13.757833 0.89949405
245.543 13.006992 1.2618331
245.81828 12.125576 1.8391393
245.58481 12.256626 1.6478473
244.83571 12.731906 1.7407888
244.46457 11.551497 0.47320771
248.94318 15.705343 0.1814089
248.98048 15.866312 0.13516942
244.33244 11.405822 1.1178461
249.0495 16.170572 0.051366758
246.94701 13.894176 0.73776269
244.99426 12.619429 1.7012817
246.19673 13.563966 1.2430562
246.4478 14.023056 1.2023554
244.78023 12.802067 1.5286357
237.3687 24.407354 0.7215153
237.75771 24.392258 0.54490638
237.39098 24.403679 0.34757847
238.8819 26.10318 0.2475718
254.62198 23.194363 1.8422999
237.36081 24.444582 1.0999871
237.75587 24.385603 0.92757988
237.07895 24.446297 0.90858436
237.33917 24.445614 1.4785782
236.81816 24.503529 1.4788949
237.04636 24.479599 1.2863172
237.75514 26.66156 1.8193151
260.40237 13.737522 0.40742487
266.59146 18.805861 0.047516502
265.73563 18.951252 0.22833426
267.41254 18.702551 0.80839938
266.53964 18.799391 0.96341425
264.84872 19.083229 0.41594139
260.34186 13.29294 1.0312064
260.42197 13.795957 1.1799504
265.7149 18.946447 1.1285319
260.27988 12.91553 1.6525869
260.36026 13.355542 1.8037962
267.35855 18.702934 1.7472951
266.50735 18.795301 1.8869172
260.44073 13.839741 1.9614873
232.21112 16.318354 0.0095249005
231.51064 16.155697 0.10861102
231.48758 16.079138 0.47787613
231.85251 16.273983 0.36880022
231.24052 16.197477 0.49813455
248.45529 28.376467 0.018005561
231.36108 16.209549 0.92778933
231.04942 16.165039 0.92218059
248.40788 28.361588 0.87825817
231.19392 16.184553 1.2410502
230.81311 16.130943 1.4586205
248.31807 28.370087 0.91647667
230.65724 16.214304 1.9159498
230.60609 16.563723 1.7694643
248.28683 28.36659 1.7529135
235.50604 24.687035 0.32664105
235.59937 24.686268 0.39136246
235.54485 24.688326 1.079025
235.47211 24.703436 1.0270228
235.40222 24.695078 1.713882
242.3924 16.987392 0.019012796
242.63351 18.306587 0.11346182
242.01215 16.97097 0.29581884
246.19489 25.185928 0.29240885
245.08061 25.175297 0.15297136
242.69556 18.612429 0.63147032
248.66798 28.347263 0.7710858
245.54474 25.184429 0.54627872
244.85564 25.158865 0.76175475
244.37277 25.140436 0.34243158
243.65155 25.092505 0.49168086
236.58401 20.753155 0.31344029
231.99834 16.273642 0.20348646
248.01814 28.425562 1.0906031
245.33153 25.162859 1.1669005
244.14729 25.12026 0.93542552
241.37822 24.743805 0.71077353
240.73962 24.862303 0.72581655
239.92664 24.575487 0.69045192
239.30406 24.683392 0.64268214
239.11491 25.932589 0.6087876
237.25328 24.404116 0.30801523
236.65933 24.502954 0.15195292
235.88278 24.625963 0.41220894
235.31374 24.729572 0.19842386
248.47412 28.362909 1.488379
245.7894 25.153786 1.557646
245.12239 25.129709 1.7841742
244.64183 25.136761 1.368224
243.93279 25.097733 1.5287423
241.17859 24.769859 1.2474554
240.37172 24.511871 1.2285098
239.7289 24.606464 1.1994873
239.10237 24.706064 1.1391472
238.9409 26.050829 1.1223102
237.66017 24.344809 0.90852028
237.0607 24.444572 0.76797348
236.46341 24.53034 0.60196739
236.27808 24.584652 1.0529678
235.68991 24.652061 0.85155457
235.11975 24.754698 0.62868118
234.46544 24.858027 0.59526259
244.43198 25.105286 1.9731146
242.44731 24.923767 1.7269104
241.68886 24.807955 1.7701918
240.9827 24.790968 1.786074
240.17459 24.528921 1.7482858
239.53899 24.633287 1.7097558
239.18292 25.440252 1.6939818
238.70027 25.982952 1.6253462
237.47162 24.387272 1.3787445
236.87224 24.492004 1.2285477
236.0831 24.603846 1.5019889
235.50143 24.698271 1.2920645
234.93077 24.785892 1.0607527
237.87845 26.195606 1.9982767
236.66629 24.46517 1.6857972
222.43193 11.129523 0.047793601
222.7377 15.254025 0.10985939
223.1086 15.293433 0.03965506
222.36188 15.217141 0.16366737
221.8835 15.164681 0.057269085
221.62585 25.187866 0.065068267
218.81802 22.993671 0.59394068
218.26534 22.945263 0.5923239
217.17915 22.826174 0.50422692
216.64458 22.769968 0.41307291
223.82121 6.2235427 0.066912852
232.00159 16.284882 0.31756139
231.56969 16.241447 0.17969367
223.8586 5.9889178 0.39539507
223.82693 6.248158 0.37324455
231.97215 16.267712 0.78902209
231.68889 16.24556 0.49843535
223.82695 6.2917762 0.68554932
232.11476 16.277267 1.2359786
234.55598 24.858131 1.344929
223.2571 15.235023 1.6772797
223.16322 16.767239 1.7661079
222.77797 15.201482 1.8037107
224.82228 47.506527 0.095140174
214.81117 22.484474 1.9741431
214.52191 22.455944 1.6861361
224.17522 47.391605 0.86244363
223.23399 48.474281 0.34272915
223.48183 47.490845 1.6086752
223.81612 48.512291 1.9250563
221.77797 48.120235 1.6990786
239.72432 24.471737 0.30565241
239.21065 25.5716 0.075060286
239.9359 24.541197 0.78434694
239.49828 24.655199 0.38544509
239.19179 24.705553 0.46829274
239.20532 25.465582 0.58738756
239.03307 25.994568 0.18837422
222.63258 15.205914 0.2432344
222.78325 15.235698 0.088875405
240.23802 24.522064 1.2377924
239.84599 24.590799 1.3371028
239.37369 24.661173 0.93425393
222.59274 15.146059 0.58100021
222.68962 15.23276 0.33267459
240.81367 24.821623 1.70311
240.26167 24.51458 1.762105
239.87096 24.568289 1.8573011
239.55658 24.624769 1.4072386
230.94951 26.204531 0.2632221
222.43608 15.193155 1.0472223
230.98747 26.194782 0.78845495
222.38124 15.177892 1.5343916
231.1299 26.194096 1.4457096
230.90634 26.172539 1.3104169
231.22131 26.180399 1.9631617
230.96814 26.171251 1.8397185
240.85252 24.860258 0.083002292
240.30135 24.54756 0.19218343
241.20219 24.790661 0.4639712
240.87627 24.844505 0.56916124
230.55803 17.264603 0.4956724
230.51015 17.671225 0.23290753
248.22859 35.612537 0.74337721
242.5813 24.927219 1.128768
241.22176 24.773184 0.95695269
230.69919 16.270824 1.0633231
230.6102 16.861019 0.73723507
230.58174 17.14234 0.92364538
230.53053 17.558439 0.67748046
248.77994 35.313683 1.2738749
242.57874 24.915411 1.6466604
242.09918 24.816496 1.7536952
230.91423 16.13036 1.5469931
230.68106 16.238407 1.3470048
230.63072 16.737913 1.3475761
230.55205 17.430731 1.1170893
230.51611 17.693941 1.3141598
231.88028 26.912056 0.15346608
248.56306 36.107162 1.5147914
230.88475 16.148029 1.9929019
230.62585 16.803629 1.7603475
230.57068 17.256853 1.5493385
231.91342 26.805182 0.8823908
231.8157 27.633307 0.56813669
248.85394 35.05592 1.9440773
231.86127 27.236597 1.171791
231.97258 26.802786 1.6208633
231.81566 27.727613 1.4743359
231.88812 27.055634 1.9109087
234.79965 49.722755 0.7249161
234.58965 49.69754 1.2085819
231.48573 16.148705 0.47339189
231.13528 16.180155 0.33001956
230.77202 16.139524 0.061661199
231.97998 16.262344 1.0005684
231.55417 16.221741 0.84844643
231.17793 16.182491 0.7170797
232.24486 16.275032 1.4196342
231.95314 16.251194 1.3881433
231.58429 16.216599 1.2409896
232.25998 16.259274 1.9354098
232.05179 16.242739 1.7425886
229.16165 17.053411 0.072853744
230.5751 26.196285 0.48562256
228.97656 17.053278 0.36799285
230.40402 26.164427 1.049414
230.4084 26.068121 0.80937165
228.98471 17.081764 0.66061491
230.1355 26.118011 1.3293248
229.53082 26.449415 1.4895582
229.43321 27.338324 1.3699423
222.70276 15.225267 0.050639611
229.67801 26.106543 1.8992331
229.47302 26.990181 1.9025534
229.64865 26.051802 1.6319537
222.20831 25.233479 0.26833433
222.06857 25.425892 0.028755404
221.6413 25.190672 0.10233742
222.44223 15.171965 0.51670492
222.21503 25.72525 0.77589071
222.13997 26.431911 0.56622249
222.07338 25.217953 0.49915236
222.26837 15.190537 0.86187661
222.19141 15.175809 1.0530088
220.39633 34.98761 0.57753325
219.89059 35.04681 0.23811965
222.08984 15.154407 1.4489263
220.85062 35.141762 0.90027732
220.15128 35.068611 0.95322698
219.67557 35.027988 0.60395521
221.98915 15.129571 1.9151363
221.10532 35.273174 1.5954963
220.63531 35.117115 1.2815938
220.42261 35.088497 1.6656556
219.93811 35.037525 1.3290616
220.92017 35.136116 1.9806756
219.72693 35.009529 1.7042252
218.66893 46.285873 1.8120058
220.04347 23.795826 0.15103707
221.02965 36.00238 0.050266292
220.92615 35.219124 0.098554924
220.10683 23.297995 0.67714274
220.06801 23.623652 0.42439768
221.02551 36.075367 0.59228575
220.04086 23.139269 1.1813869
219.23825 46.611198 0.044852465
218.82585 46.728203 0.10946488
219.95396 23.118557 1.6909425
219.95992 23.119375 1.4976697
219.61099 46.578045 0.74277902
219.17001 46.939861 0.80551243
218.83879 46.714565 0.86344862
219.74762 46.732563 1.4799654
219.1906 46.888268 1.5693886
218.89642 46.529209 1.614035
222.25403 25.27717 0.16953206
222.22005 25.259604 0.63368684
222.20422 25.24474 1.1702584
222.28145 25.373924 1.7251621
222.1926 25.227661 1.7111994
226.36517 48.712128 1.7266935
218.84068 46.964008 0.24152558
219.1597 46.720894 0.58907217
218.79828 46.61544 0.58787227
218.39008 47.499123 0.22656287
219.3118 46.778652 1.2846668
218.85808 46.713284 1.0612855
219.151 46.848625 1.6530213
218.79478 46.577747 1.6491357
221.91721 25.227304 0.31680468
221.711 25.192781 0.75301403
221.49272 25.161552 1.1735138
221.20143 25.121386 1.2978821
221.38907 25.136148 1.5712379
221.19888 25.110992 1.6276871
221.16565 25.134539 0.18520749
221.1106 25.126999 0.15641306
221.12218 25.118496 0.61474949
219.47528 22.988892 0.0016272661
219.07552 22.982506 0.11955643
218.76965 22.970739 0.1892595
221.06029 25.099092 1.0939023
218.85011 22.987286 0.4183186
218.54596 22.939123 0.56269616
220.93112 25.071745 1.6129543
218.24899 22.896994 0.92044264
218.05968 22.873587 1.1112559
220.73051 25.029385 1.9762191
217.93958 22.850769 1.3887242
217.70947 22.829086 1.8441168
215.76875 46.257393 0.13979287
214.97292 47.701736 0.28650063
215.92888 46.317734 0.59874225
219.88727 35.068249 0.34236977
219.73129 35.048729 0.14143901
215.89508 46.186214 1.1800426
215.64238 46.419453 0.72670799
219.80733 35.03899 0.73559964
219.77084 35.01939 1.2039193
219.47598 23.025686 0.097170435
219.70668 34.996124 1.6400459
222.16919 26.774035 1.4738607
219.78296 23.015247 0.85492748
219.64967 23.023989 0.59688962
216.32661 22.776302 0.0481777
219.77957 23.016125 1.0170702
219.67677 23.095823 1.2838871
219.6963 23.01438 0.97893357
216.26112 22.766727 0.33667964
215.98631 22.733192 0.36584243
219.66628 23.082815 1.6935809
215.88719 22.704132 0.67263246
215.52104 22.675035 0.79436827
215.25317 22.640749 1.1608193
215.04459 22.611105 1.2968218
214.91486 22.593584 1.4913914
214.7684 22.567863 1.7115862
196.35956 13.527694 0.20098108
183.85872 19.598354 0.15706378
175.30524 18.806856 0.3940973
187.41614 12.645295 0.40284529
169.50787 10.869474 0.75021452
150.67068 17.376768 0.8394779
146.70842 9.2385921 1.2063709
140.95413 10.28059 1.3723421
120.87202 9.334795 0.028276512
118.18198 14.633509 1.4805517
215.93567 22.65414 0.0057698311
215.46719 22.608719 0.047474395
214.98184 22.552422 0.021982264
214.48677 22.484341 0.061029442
200.05559 26.234289 0.12175088
204.20929 24.525963 0.078439459
204.24326 24.10886 0.032391809
215.83778 22.642738 0.25499305
215.40253 22.594858 0.2604278
214.92564 22.539223 0.28665391
214.39891 22.479645 0.34111136
213.91003 22.423492 0.34935525
213.41954 22.373924 0.20773768
200.65802 26.369234 0.50223833
204.19022 24.646496 0.70690233
204.18312 24.796638 0.40992552
204.24478 24.182713 0.45087063
204.3031 23.583355 0.45974278
204.03719 23.213833 0.17085487
203.55424 23.169792 0.45676646
202.08278 23.044668 0.373604
213.192 22.337116 0.56872922
199.32117 26.618872 0.91385835
198.99463 26.535614 1.3141767
204.20938 24.49724 1.0036795
204.26349 24.070726 0.9513067
204.3026 23.657604 0.8848992
195.24924 23.661436 0.50066745
204.34267 23.251743 0.803451
203.6041 23.010544 0.73662204
195.32239 22.992064 0.49331433
195.38683 22.443462 0.27463067
193.02361 22.153557 0.038283344
191.838 24.732721 0.97627276
214.26605 15.751854 1.606104
213.8842 15.797945 1.6969947
214.29846 15.391791 1.5401772
214.35106 14.895634 1.4200547
214.3752 14.635611 1.4646506
214.24483 15.742341 1.9462422
213.89844 15.793924 1.8973122
213.42345 15.739304 1.9493794
213.01981 15.694211 1.9456506
214.30553 15.352197 1.8528283
214.34991 14.904916 1.7715786
214.37726 14.593152 1.6352473
144.95218 10.508003 1.8888341
117.3407 8.6084785 0.8237043
67.698975 4.4524837 1.7253608
202.02913 21.70714 0.13249515
213.44942 15.927111 0.47999501
213.46344 15.904078 0.45829925
212.82646 15.725857 0.31565604
213.44849 15.917993 0.59452617
213.65457 15.782145 0.94730413
213.47427 15.794214 0.72306168
212.85045 15.711037 0.50061476
213.84724 15.796153 1.4433101
213.76039 15.791712 1.1999261
213.7226 15.768725 1.7947083
213.30522 15.715084 1.8094596
163.40184 -8.4728279 0.43140393
164.29198 -9.2249031 0.48967913
164.28552 -9.1388149 1.1979271
163.59291 -10.700087 0.62893087
163.66585 -10.598425 1.3387289
89.539177 9.7415228 1.1264721
76.734314 8.2988129 0.97189683
204.18768 24.451719 0.33010107
204.23569 24.036434 0.15462619
204.29738 23.560053 0.068964623
200.03268 26.66217 1.0099151
204.16028 24.802742 0.86439592
204.17358 24.60358 0.72026843
204.22459 24.10354 0.6319232
204.27322 23.706728 0.41318616
200.70944 26.69105 1.4114933
200.13657 26.626579 1.3717237
199.70345 26.573128 1.4762505
204.17392 24.62652 1.2053264
204.19531 24.414688 0.99261355
201.093 26.703859 1.8575598
200.52298 26.685566 1.8261436
199.98491 26.699142 1.7556931
205.26289 14.816283 0.42810702
204.68484 14.829331 0.25174394
204.45905 14.795259 0.48728949
205.29387 14.608361 0.54630357
205.26176 14.866177 0.7186774
204.47864 14.833361 0.64463735
205.31451 14.499605 0.87291545
196.34906 13.179516 0.018279446
196.40224 12.728593 0.0077085677
205.34213 14.31246 1.2198408
205.37349 14.032656 1.3298173
196.39262 12.817314 0.39700273
196.43535 12.368382 0.40781689
205.39737 13.834543 1.7212383
196.42755 12.42281 0.66415203
114.79787 13.618669 0.93137288
149.95326 18.0618 1.0287702
149.95335 18.063324 0.9926458
141.57933 17.81024 1.1929029
202.08073 21.694624 0.0791803
195.30498 23.098364 0.61534739
195.31462 23.073124 1.2145687
195.31879 23.034523 1.6099868
140.86293 10.709613 0.49213746
144.94254 10.444407 1.7106051
144.71968 9.8923855 1.5650039
117.82658 7.118278 0.34467188
75.627975 1.6737404 1.8249071
75.591576 0.70461994 1.5309888
193.09052 20.567686 0.18345839
190.68916 20.298536 0.37266177
196.29926 13.624813 0.073985629
196.09982 13.824354 0.031054411
189.01875 20.114405 0.13576566
195.5751 13.754515 0.44093147
194.89537 13.701257 0.18410459
187.56174 19.948393 0.59683907
184.20822 19.712547 0.32867268
187.38483 12.401457 0.16448122
183.44135 19.469135 0.87535626
187.29553 12.853467 0.3198972
187.40785 12.155999 0.5542168
187.44481 11.712373 0.36373216
179.3741 19.109158 0.57100481
187.37222 12.487634 0.91747099
186.60695 12.912837 0.87089604
187.43793 11.905796 0.94541192
187.48586 11.468204 0.74433285
175.26599 18.656197 0.15657364
187.33588 12.833189 1.2622248
178.47473 11.182812 0.52027494
175.26053 18.745043 1.3017083
173.00772 18.268816 0.87401026
178.36621 11.830443 0.65759373
178.44635 11.502174 1.2161472
178.38931 11.82004 1.8998806
178.49379 11.157225 1.7759812
169.51169 10.281381 0.053791657
169.46791 10.710568 0.88376826
169.51762 10.286299 1.6009943
160.55528 9.4134789 0.14995807
150.51714 16.922457 0.41995883
159.81461 9.822381 1.1211973
151.58981 8.9111252 0.22962666
160.55786 9.43752 1.9895535
147.99634 9.5947952 0.26910579
145.76256 8.6143293 1.4043382
144.7018 9.8234196 1.4179384
140.81416 10.739938 1.4046284
114.84438 13.527176 0.96125829
117.89087 6.9221091 0.23470034
76.732162 8.500721 1.7421517
66.820885 3.1295903 0.028481556
202.84111 23.033064 0.6343596
202.54515 23.05405 0.45395768
202.28365 23.027798 0.39190391
201.96762 22.999243 0.23738596
203.57689 22.952068 1.2628131
203.18329 23.050056 1.1305232
202.84924 23.038115 0.9311499
202.41652 23.035219 0.74298638
203.44447 23.064676 1.7722087
203.30821 23.058907 1.5383725
191.63687 26.898241 0.20993304
193.13297 20.857624 0.3366442
190.88046 21.592447 0.027304603
192.3475 20.535234 0.33541512
196.27121 13.701244 0.1500532
196.05075 13.844506 0.099472582
192.73831 20.569914 0.83447236
191.62883 20.450871 0.72632921
191.17828 20.409569 0.18710542
196.26755 13.722003 0.64750832
195.66295 13.821383 0.50535703
190.35144 20.312531 0.59535211
188.83955 20.152731 0.43440455
196.25211 13.83053 1.1094962
195.65762 13.822694 1.0733718
190.84082 20.357172 1.153851
190.17659 20.182753 1.0157455
187.74825 20.029989 0.90374374
195.23441 13.733104 1.5694836
194.79451 13.713378 1.3620436
188.38676 20.087248 1.5380553
184.19913 19.839622 0.75753045
184.20026 19.791544 1.4136857
187.4577 11.602573 1.2616529
179.51584 19.354052 1.1629961
187.3327 12.822024 1.9144531
187.3717 12.445715 1.763575
187.41876 11.983842 1.7699876
187.45692 11.55288 1.7392792
182.39549 19.460857 1.9334365
179.39397 19.129181 1.7929717
175.26535 18.706234 1.6200579
159.79112 1.2242705 1.5798624
194.95886 25.745764 0.039846852
202.24985 23.029341 0.94134039
201.95616 23.00267 0.81364274
194.89819 26.172646 0.54281628
195.19363 25.752651 0.3097142
202.27863 23.031961 1.1478057
191.41539 27.57765 0.65641505
191.5681 27.149221 0.55755413
194.89026 26.193184 0.8449381
191.64732 26.738543 0.47249866
191.63921 26.455389 0.19120885
193.09149 21.146765 0.11414555
191.56654 27.533833 1.0246466
191.60776 27.161192 0.92255878
193.08255 21.250313 0.62038249
193.09596 21.12429 0.61083734
191.55919 27.66987 1.3760709
193.09479 21.195522 1.1097289
193.10799 21.079361 1.1051034
193.10255 21.165909 1.6889188
193.09625 21.232279 1.5199586
190.66762 21.56258 1.2311602
194.85245 13.715352 1.2446371
194.78799 13.720699 1.0689856
193.10652 21.150805 1.9396
191.40292 21.620596 1.9080493
191.00911 21.588198 1.5804753
195.30869 13.749233 1.7523421
195.20807 13.739588 1.8268456
195.00063 13.7218 1.5092597
187.46384 11.462733 0.30924413
175.95242 5.9630594 1.9185365
161.20448 0.89379406 0.0043170289
161.18011 0.88366985 0.56598622
161.06416 0.43429711 0.2548427
162.90182 0.84755051 1.0499409
161.19867 0.88794351 1.1316248
161.14011 0.42367491 0.82051122
162.78653 0.639732 1.7292548
161.05353 0.35065129 1.3917565
161.2657 0.39782226 1.9529161
202.32837 21.739412 0.10038351
201.95264 21.676567 0.0078813815
195.27319 25.725599 0.41268796
191.68213 25.988747 0.0057636932
194.91328 25.712753 0.21181443
191.61679 27.039341 0.50466806
195.30296 26.200737 1.0517726
191.63431 26.722719 0.38782001
195.03642 25.851873 0.5883497
191.65289 26.298956 0.21137121
195.07013 25.669823 0.72726023
193.12631 20.715683 0.049846798
191.49414 28.006733 1.0254499
191.54993 27.557661 1.148222
191.60614 27.161753 0.91590714
193.11526 20.850739 0.40113974
193.13097 20.696764 0.40738603
192.73161 20.590822 0.25746083
191.43678 28.430321 1.6169531
191.49483 28.034956 1.5453178
191.55603 27.689629 1.45548
193.11729 20.877728 0.92907482
193.14119 20.644238 0.69558084
193.07901 21.196365 1.3628597
193.11627 20.967251 1.4435204
193.09457 21.205009 1.8713243
191.01387 21.562494 1.8214421
193.10895 20.981665 1.8350216
193.00827 22.007481 0.44664025
192.92615 21.831976 0.30577248
192.59595 21.787338 0.0052435538
195.35834 22.617132 1.490871
195.35269 22.314444 1.3065665
194.91943 22.193047 1.1687847
194.56165 22.079685 0.94740963
193.66071 22.106443 0.97465897
193.01945 21.994633 0.74950421
192.51649 21.771315 0.52843279
192.07869 21.724314 0.49021664
191.63007 21.674408 0.44844738
191.02887 21.617987 0.18514973
195.27917 23.233364 1.9546448
195.32878 22.813379 1.8371984
195.37488 22.370203 1.708185
194.96666 22.182138 1.6060863
194.45975 22.13479 1.4965676
194.28986 22.052252 1.2610844
193.63072 22.101334 1.4697779
192.95665 21.972675 1.1226981
191.54817 27.625193 0.31662664
191.56741 27.336315 0.036318772
191.56523 27.647522 0.72968769
191.59557 27.342443 0.51695615
191.55621 27.683754 1.2088569
191.58105 27.434523 0.92848772
192.79073 20.575617 0.24233642
191.52727 27.608225 1.8564048
191.5219 27.717943 1.6669359
195.35291 22.697382 1.8272784
192.77855 20.565592 0.69523549
195.32027 22.976786 1.9821273
192.60252 20.539881 1.1585517
192.36531 20.504271 1.5943131
192.03047 20.458405 1.7146295
168.71411 11.007899 0.75045508
168.1165 10.862133 0.38468882
169.43515 10.794125 1.3441231
169.44476 10.81242 0.98472375
168.70847 11.005915 1.1213228
169.43883 10.780392 1.7045881
168.11299 10.860164 1.5147506
169.4767 10.474845 1.5993387
160.51318 9.5166702 0.57648766
159.69524 9.9531898 0.33281699
160.51933 9.5374222 1.0383631
192.98199 20.616674 0.21990678
192.53314 20.576962 0.12933116
193.14633 20.651924 0.77718651
192.91946 20.610479 0.47628963
192.43666 20.566467 0.32767069
193.14468 20.680571 1.1543767
193.14801 20.678377 1.5958476
193.16386 20.644587 1.9339375
193.10748 20.926252 0.53001285
193.12045 20.760149 0.28778681
192.79813 20.609785 0.06809634
193.10373 20.979839 0.86243236
193.11638 20.855814 0.59404898
193.09433 21.064741 1.3578761
193.09613 21.06035 1.8148326
117.63553 9.1435814 1.6581324
108.01533 8.1157408 0.86175841
108.06547 8.0107985 1.7791635
92.058189 6.440032 0.91812932
193.14763 20.809132 0.59761006
193.16029 20.694126 0.4489322
193.1355 20.948797 0.99288267
193.12206 21.042646 1.5298342
193.05804 21.057903 1.9302998
193.11867 20.973103 1.8994937
149.77907 14.795392 0.29809985
149.4279 14.548371 0.26039141
149.83868 14.561872 0.76005363
136.4747 13.275473 1.5294656
145.18582 15.637266 0.11443517
147.30157 15.244027 0.12746769
136.35663 14.239841 1.9306741
116.8075 13.821314 1.5631133
116.8652 12.81464 1.6056442
109.75401 12.556685 0.81507885
62.173363 7.2426758 1.0212882
173.6483 18.442533 0.26646638
172.73645 18.337008 0.22873272
171.43219 18.193747 0.17729014
169.81358 18.00963 0.11165037
171.43118 18.186371 0.71551639
170.19351 18.035877 0.68680429
116.97534 14.5389 1.1210946
107.43312 13.559313 0.99731749
180.42802 19.418158 0.15705232
180.3644 19.381248 0.63295901
180.24057 19.374372 0.29509646
179.92702 15.770856 0.065533072
179.49178 19.326738 1.1131122
180.24869 19.364307 0.82162553
180.01837 15.510966 0.24987592
179.9102 15.184974 0.3004503
179.45135 19.261738 1.537704
179.41846 19.213585 1.5023373
179.90878 15.220375 0.59387016
180.20239 19.21022 1.8848726
179.91087 19.162712 1.8859109
179.54803 19.098724 1.8860046
168.66602 10.798637 0.7110011
168.56595 10.787359 1.2514341
169.44141 10.754889 1.2299931
168.66766 10.809499 0.97806036
169.43257 10.752991 1.7512677
168.49504 10.774953 1.5274621
169.47313 10.465919 1.6387217
160.64798 8.4172478 0.28452435
160.6506 8.4475698 0.64101756
160.64104 8.5096283 1.3666333
160.63455 8.4745255 1.0016425
189.1909 20.140318 0.24855092
188.82835 20.099144 0.065924868
189.32074 20.16095 0.50198275
179.32887 19.04368 0.33765694
179.24066 18.96773 0.098049991
178.47412 18.843 0.086740732
